ply
format ascii 1.0
comment Vortex field at tick 5000
comment Color = frequency (rainbow), brightness = energy
element vertex 100
property float x
property float y
property float z
property uchar red
property uchar green
property uchar blue
end_header
-7.054 1.177 -70.164 109 0 137
1.297 0.039 1.319 0 61 76
-1.404 0.665 -0.294 107 57 0
1.182 -0.271 -0.893 0 61 76
-2.814 2.297 -1.790 46 115 0
0.685 0.411 0.443 0 76 50
0.534 1.287 0.736 76 40 0
2.395 -2.641 1.437 0 62 147
-0.903 -0.187 0.978 0 65 81
-2.893 3.697 -2.358 64 160 0
7.615 -3.362 58.887 0 150 100
2.097 0.738 0.318 42 106 0
-2.213 -1.012 -1.415 0 32 76
-0.261 -0.313 -0.610 56 141 0
-0.674 6.295 3.071 0 108 71
0.301 -0.184 -0.147 0 61 76
-5.686 3.268 7.007 0 54 130
-0.630 -2.308 0.980 0 41 98
13.150 -8.251 2.314 0 76 50
1.011 -0.610 -0.641 79 0 0
0.469 -0.087 -0.612 0 43 102
5.262 -1.992 -3.249 88 0 111
0.089 0.200 0.052 0 32 76
-0.487 0.035 0.736 127 0 159
-7.789 2.444 -0.085 0 91 113
0.360 -0.102 -0.707 31 79 0
0.739 -0.700 1.052 30 76 0
3.278 -1.240 -3.957 0 67 159
-0.452 0.134 1.119 0 61 76
-0.725 0.117 0.069 61 0 76
0.109 0.610 -0.425 0 32 76
-0.085 0.521 -0.433 52 131 0
-0.639 -2.076 -1.006 30 76 0
1.774 -0.461 -1.287 0 132 88
10.766 0.890 3.005 0 41 97
0.043 -1.027 0.859 61 0 76
-93.814 137.047 40.619 124 0 155
0.942 -0.017 1.880 0 141 93
-12.529 -4.875 -2.166 119 0 148
0.326 0.398 1.086 64 162 0
1.031 1.573 -2.681 0 32 76
-0.139 -0.272 -0.287 0 68 85
0.003 0.721 0.462 57 144 0
0.309 -0.212 0.038 49 122 0
0.930 -2.109 -0.670 173 92 0
1.567 -0.563 -0.530 30 76 0
0.446 1.198 -0.794 0 134 89
1.262 -0.894 0.497 91 0 114
-0.397 0.783 0.365 35 89 0
0.024 -0.173 -0.101 76 40 0
0.444 0.178 0.008 0 32 76
-2.245 -0.551 -0.731 126 67 0
0.100 0.250 -1.337 57 143 0
107.482 -157.841 -47.459 55 138 0
0.572 0.046 0.718 0 32 76
-5.460 5.425 -0.191 0 72 172
-37.469 15.220 11.871 0 61 76
0.001 0.619 -0.216 0 150 100
-1.817 0.015 -0.381 163 0 0
-0.054 -3.878 -2.045 0 173 115
-0.590 -0.968 2.237 76 0 0
42.765 9.126 4.078 0 32 76
0.202 0.140 0.590 0 61 76
16.285 5.868 -0.853 53 134 0
75.640 59.555 49.300 95 0 119
-0.197 1.108 0.952 0 76 50
-1.021 -0.209 0.083 76 40 0
-1.906 2.447 3.050 0 44 104
0.448 0.128 0.828 0 61 76
5.828 -11.873 2.476 34 85 0
0.875 -0.720 0.517 0 76 50
0.815 -1.942 2.458 61 0 76
12.346 -4.747 -3.913 68 171 0
-2.414 -0.868 -0.631 0 32 76
-168.152 -409.064 450.622 0 101 126
-0.283 -0.421 0.185 131 0 164
0.072 0.105 0.117 37 94 0
-3.055 0.585 1.091 53 133 0
0.829 1.278 1.601 0 120 150
-1.212 0.368 -0.275 76 40 0
-0.017 -2.786 -2.373 140 0 175
-0.894 4.961 3.786 71 0 89
-4.290 -1.342 -0.690 0 66 157
-71.781 -51.840 -44.491 0 126 84
-0.960 0.892 -0.272 76 40 0
140.896 341.614 -382.846 147 0 0
2.027 2.289 -2.238 30 76 0
-0.421 0.360 0.114 30 76 0
0.810 -0.736 -0.802 69 0 86
0.120 -0.341 -0.144 0 37 88
5.521 -6.278 -7.871 32 81 0
0.065 -0.041 0.089 0 66 157
-0.221 -1.058 -0.791 0 76 50
1.526 1.049 -2.441 118 0 0
0.946 -0.234 1.114 0 61 76
0.889 -2.478 -0.546 0 61 76
-1.173 0.067 -0.527 92 0 0
0.219 -0.499 -0.215 0 32 76
-0.669 -0.411 1.917 0 76 50
0.054 -0.609 0.734 0 118 147
