ply
format ascii 1.0
comment Vortex field at tick 2000
comment Color = frequency (rainbow), brightness = energy
element vertex 1497
property float x
property float y
property float z
property uchar red
property uchar green
property uchar blue
end_header
-27.693 -96.848 -201.646 30 76 0
126.967 -128.739 -112.167 76 0 0
-110.848 47.944 -126.232 76 40 0
105.822 -35.005 70.309 0 61 76
-143.023 -32.517 -140.165 0 72 170
-100.423 159.201 -93.004 170 90 0
-73.102 53.547 -41.229 0 76 50
-115.784 -108.378 58.329 181 0 226
-154.192 19.916 -149.530 106 0 133
-199.183 -115.209 166.031 0 124 155
-4.624 -140.614 9.792 76 0 0
24.224 46.790 -10.430 84 0 105
98.311 209.624 101.845 93 0 117
69.250 157.958 208.154 66 167 0
-6.929 -5.375 66.167 53 133 0
72.052 128.487 28.326 76 40 0
179.980 55.791 150.644 0 61 76
215.742 -96.113 77.992 139 74 0
-137.537 106.512 20.532 0 78 97
-15.124 -118.094 34.768 76 0 0
-134.283 -141.415 199.257 30 76 0
16.231 -107.529 72.108 0 116 145
-43.468 183.070 99.964 0 123 81
-158.437 -23.301 -154.215 0 43 102
-55.943 154.181 -6.954 0 32 76
-6.946 14.139 -144.293 0 61 76
218.579 110.152 -53.403 108 0 0
-116.404 -93.434 68.247 76 40 0
96.042 9.001 90.817 0 117 78
-8.278 -82.103 -145.839 99 0 0
-7.840 -62.125 52.091 31 78 0
92.175 41.964 76.701 0 35 84
20.529 10.072 75.979 120 0 0
-75.481 92.026 7.142 134 0 0
-70.794 -53.792 215.809 0 43 102
17.362 -160.310 -91.561 158 84 0
-73.717 45.724 -153.195 55 139 0
-86.362 -14.038 12.698 151 0 0
21.998 100.454 201.449 0 49 117
23.664 77.941 -23.013 0 124 82
-8.004 -74.570 214.971 122 0 0
49.797 48.625 -31.311 0 42 99
-11.328 95.946 103.572 76 40 0
-158.486 -60.794 15.978 0 32 76
147.517 -47.856 250.575 65 164 0
-131.455 16.145 3.614 96 51 0
-95.052 -0.177 20.954 63 0 79
79.922 -165.954 28.950 0 32 76
239.593 -65.260 -4.877 0 61 76
237.770 -34.724 116.787 0 140 93
-61.119 -72.783 -223.129 61 0 76
-54.492 -143.994 -117.318 0 61 76
50.528 -29.939 -8.053 0 82 54
-33.893 -35.043 87.926 0 158 105
-163.990 101.852 -81.306 0 74 175
-133.429 -97.155 -136.560 0 153 102
-13.357 32.435 26.525 0 151 100
48.470 61.266 -6.884 0 39 93
26.342 96.347 64.325 0 48 114
-59.384 263.569 -1.395 90 48 0
-34.683 249.348 -93.886 105 0 0
45.701 -19.395 69.933 86 0 0
43.404 109.508 105.416 164 87 0
-46.357 20.616 -31.471 90 0 113
192.355 25.411 155.031 0 59 140
-25.245 80.053 -37.954 76 40 0
-597.532 -69.792 -317.591 204 0 255
-18.988 28.539 -226.922 0 198 132
-218.773 167.063 -56.603 0 36 85
-86.365 44.919 -4.925 76 40 0
-98.663 121.550 -105.012 76 40 0
103.218 90.572 -142.103 61 0 76
15.498 -294.355 -143.598 0 131 87
-0.080 65.082 -47.209 111 0 139
-146.751 -150.163 124.390 61 0 76
40.136 -106.981 -16.649 123 0 154
56.753 -65.885 131.449 0 76 50
-91.171 -36.590 -152.996 47 119 0
-84.223 -101.524 -65.106 59 148 0
-23.806 -49.376 12.225 0 90 113
156.292 121.610 111.721 0 134 89
-95.778 -9.482 139.359 87 0 109
-1179.479 -68.673 -441.819 255 135 0
-2.106 31.771 49.365 30 76 0
191.135 113.091 130.616 0 32 76
-99.806 34.345 -3.027 66 167 0
28.166 -35.420 48.110 0 131 163
88.426 -30.760 -169.223 111 0 139
13.432 69.174 -62.160 157 83 0
-46.372 -81.774 -105.861 67 0 84
195.282 -138.496 -38.021 103 55 0
-10.252 34.190 -57.903 89 0 0
-92.885 -132.117 15.556 151 80 0
-41.844 111.901 -236.514 87 46 0
-112.284 -185.634 85.078 0 175 116
187.901 38.652 26.218 128 68 0
80.418 -195.121 28.374 76 0 0
-110.623 172.767 30.325 30 76 0
-36.352 71.659 -49.222 30 76 0
60.938 -3.493 -184.565 41 102 0
91.809 15.300 3.432 0 138 92
42.189 -63.130 39.288 125 66 0
1.672 32.359 23.115 0 102 128
214.183 76.587 -124.961 0 127 159
-29.047 224.779 -104.335 160 85 0
-192.529 241.523 -111.464 141 0 0
162.387 19.620 105.373 51 127 0
256.438 -118.448 -23.784 52 132 0
32.753 1.994 159.786 0 101 127
-32.382 20.114 -72.027 152 0 0
38.484 123.187 41.298 0 134 167
21.791 179.240 -113.221 0 40 95
170.037 214.149 -23.252 174 92 0
-117.062 -71.845 -28.112 0 76 50
-119.327 -14.160 149.330 164 87 0
-239.276 19.168 0.733 99 0 123
127.203 -76.071 -20.229 0 139 92
61.224 36.515 -92.989 143 76 0
-41.146 42.432 -57.617 0 84 56
-157.728 -121.535 12.701 0 32 76
-89.272 120.797 175.580 0 129 86
175.432 -116.890 -23.827 0 67 84
-10.213 14.471 -56.449 0 116 77
-152.094 23.715 70.686 90 0 112
-30.813 -123.823 -24.833 112 0 141
-52.286 66.642 -30.106 0 83 104
85.001 9.984 38.973 131 69 0
-73.540 -183.064 -85.383 76 0 0
93.632 -77.988 56.922 0 71 89
12.114 -40.695 -22.415 0 88 58
-158.945 -153.750 219.456 30 76 0
164.023 17.368 117.012 76 0 0
78.901 -185.697 -156.454 30 76 0
-83.085 -9.156 68.162 61 0 76
-7.620 -76.798 58.140 101 255 0
-47.574 54.484 -20.461 30 76 0
-74.040 114.020 239.635 0 65 155
-74.843 65.977 85.222 38 96 0
-205.854 39.603 20.951 130 69 0
132.427 -32.821 -50.350 0 67 160
-80.128 -15.359 48.221 56 140 0
-7.654 68.781 -183.408 0 62 77
14.417 -60.384 -43.014 175 0 0
18.273 -97.608 57.863 0 203 255
-139.069 -30.014 137.803 42 106 0
10.861 117.601 112.422 71 0 89
111.437 -38.175 -40.480 126 0 157
-18.005 63.277 -171.381 0 77 96
-21.825 114.823 -82.888 0 163 108
-70.953 106.770 111.784 76 40 0
183.918 -138.479 50.326 0 113 75
145.183 -4.493 94.423 57 144 0
-4.542 -40.371 37.102 0 88 59
-157.255 23.309 193.941 103 0 129
58.616 108.580 63.280 0 61 76
187.104 -143.805 -2.440 136 0 170
-36.227 -49.451 18.848 204 0 255
33.351 97.138 -40.921 0 93 116
-27.566 -113.558 -24.011 0 159 106
-215.286 -91.802 -153.709 30 76 0
25.600 -63.698 59.834 30 76 0
-19.921 45.224 -19.332 112 59 0
537.549 364.293 -1053.404 0 203 255
47.565 -2.056 9.825 162 0 0
57.063 59.936 -10.161 61 0 76
-49.468 -70.709 197.576 0 76 50
343.701 -21.918 20.534 0 137 171
26.838 -123.195 18.146 0 102 68
110.326 111.851 -26.259 63 157 0
8.234 24.617 19.435 0 208 139
170.295 -117.470 157.115 41 102 0
8.302 10.752 -54.898 0 67 84
81.124 -58.618 -12.130 138 0 0
5.807 99.456 6.575 0 72 90
-24.042 -93.163 -0.971 0 32 76
174.376 137.368 -128.338 0 38 91
-18.439 -130.830 5.961 0 85 106
18.442 -23.843 18.941 0 108 72
216.719 53.759 41.673 76 0 0
29.771 -39.263 86.458 46 116 0
173.443 234.144 16.527 72 0 90
-136.402 31.344 -27.340 135 0 168
250.405 -30.901 7.819 87 46 0
-246.769 90.452 -51.952 76 0 0
87.541 8.923 154.764 0 76 50
44.719 94.752 126.930 98 0 0
168.980 -49.456 164.237 139 0 0
101.029 44.184 -147.877 106 56 0
191.892 -93.061 -149.216 137 0 172
-331.067 -113.777 216.922 0 32 76
109.137 -44.809 -29.755 106 56 0
22.818 -61.519 106.399 30 76 0
-183.516 239.116 1098.421 58 147 0
-129.143 -65.767 4.536 0 136 90
98.329 92.404 -119.104 0 131 164
-41.963 34.974 14.827 88 46 0
88.935 -42.090 136.753 101 0 126
-29.308 7.527 91.596 31 79 0
48.763 -21.636 -137.282 0 122 153
44.332 -246.907 152.359 0 127 159
4.483 -231.365 -129.104 0 135 90
148.095 13.978 21.995 0 82 55
-26.513 -16.265 -3.782 0 61 76
-63.709 -1.266 13.940 99 52 0
6.427 -55.092 29.705 0 86 108
-0.654 91.138 65.778 47 117 0
-181.378 183.466 -108.798 0 76 50
139.454 62.549 104.077 0 89 111
-164.651 -44.073 -24.187 0 55 132
-196.271 119.742 -22.286 0 116 145
137.398 127.958 14.934 76 40 0
-131.034 156.097 -13.999 0 83 104
-229.831 -119.248 -72.435 0 76 50
-35.215 -9.462 71.493 150 80 0
109.222 112.417 -28.981 209 0 0
46.741 -1.452 -32.747 0 117 147
-70.552 41.634 -6.114 122 0 0
117.114 59.851 -30.248 0 150 187
27.496 77.585 92.828 99 53 0
-20.796 -75.724 43.649 0 54 128
11.744 -29.926 21.871 115 0 0
-4.275 -65.645 100.950 140 74 0
-151.227 27.052 140.900 63 0 79
-10.860 -55.379 44.041 0 72 90
98.002 -53.454 199.035 0 147 98
0.253 247.001 39.223 0 134 89
45.037 124.588 35.898 76 40 0
168.658 106.922 16.093 0 203 255
33.848 3.028 -61.428 0 61 76
-17.508 -144.343 -36.884 145 77 0
-164.411 56.008 -616.283 204 0 255
72.341 -128.033 10.163 0 76 50
64.781 -183.787 -85.272 117 0 0
85.156 124.270 -27.762 67 167 0
50.555 34.759 -7.569 141 75 0
235.988 179.545 43.944 89 0 0
99.260 73.155 -108.674 58 147 0
-152.152 50.100 -147.604 0 96 121
-40.516 94.824 102.564 184 98 0
5.477 14.778 11.521 0 32 76
73.685 -122.291 -76.223 0 84 56
21.027 -9.872 -6.114 113 0 141
-129.607 123.460 -231.261 0 61 76
51.535 -44.785 -44.988 0 61 76
33.953 -147.714 69.375 84 44 0
9.889 -12.806 -60.161 98 0 0
-56.119 34.155 53.892 0 141 94
28.442 -37.573 -119.236 0 77 96
-70.582 49.497 184.173 63 159 0
29.554 -277.748 14.496 0 139 173
-3.132 -42.406 -15.691 76 0 0
48.823 -55.622 -177.924 101 0 126
132.414 114.359 57.003 123 0 0
109.614 -68.020 42.407 0 112 140
29.688 -35.785 -70.882 0 104 130
-174.921 -162.983 122.259 0 70 166
93.406 -28.955 -44.185 0 139 92
-89.397 -86.831 37.164 49 123 0
12.978 53.267 -6.632 30 76 0
184.994 -112.067 44.410 76 40 0
152.320 -84.912 143.108 76 40 0
231.057 -50.316 250.639 0 66 156
14.222 -54.194 -199.231 0 134 89
77.729 9.759 194.724 150 80 0
23.717 -38.414 13.185 0 126 84
127.429 -67.442 142.617 0 87 109
-40.064 41.327 -151.914 0 152 101
-198.875 -106.635 -70.382 146 77 0
-78.126 -177.304 107.254 0 96 120
229.023 -90.183 -152.880 35 89 0
-150.686 -13.799 -124.716 112 0 140
91.663 -140.610 103.337 0 72 90
-193.120 -2.730 105.441 125 66 0
16.503 204.013 -9.075 0 178 118
151.783 -127.579 131.117 95 0 118
-109.238 23.806 -1.132 30 76 0
-80.628 -0.069 -8.895 175 0 0
-171.344 -91.630 -50.321 0 69 165
85.314 56.480 73.524 76 0 0
38.678 55.498 37.552 95 0 0
40.417 -31.291 -142.348 0 140 176
97.831 -211.252 158.089 68 172 0
286.197 -61.928 -246.284 76 0 0
176.724 181.842 -150.146 46 115 0
90.029 40.676 82.300 0 119 79
-69.372 -60.623 -65.645 0 60 143
26.049 -65.871 190.691 65 0 82
34.943 7.617 24.894 0 43 103
83.281 49.039 -119.835 0 66 157
128.644 -164.147 -38.111 0 61 76
39.912 241.076 -52.444 39 99 0
91.001 -193.398 133.161 0 123 81
-104.012 -9.123 16.539 0 114 142
6.837 -10.958 -43.950 108 0 0
157.087 65.130 -11.048 0 127 84
-2.575 -31.991 58.780 0 61 76
-76.876 -42.041 -75.367 0 36 86
-5.263 -57.762 -12.615 76 0 0
230.914 21.636 21.176 69 0 86
218.183 143.546 34.871 104 0 0
-153.992 169.528 -104.997 0 61 76
59.636 -4.183 69.776 145 0 0
163.674 74.610 108.710 0 255 169
-79.538 -32.591 137.432 95 0 0
70.104 -120.630 43.276 86 215 0
219.448 100.942 48.389 149 79 0
-35.258 41.403 180.222 0 32 76
-71.527 -173.194 -153.781 59 148 0
71.752 -75.827 48.752 95 50 0
-101.129 -183.387 -172.807 105 0 0
8.512 220.394 -40.094 76 0 0
-65.620 34.954 150.940 0 61 76
-216.801 -276.607 55.443 172 0 0
-88.477 -6.823 133.647 141 75 0
-26.098 149.046 -29.093 0 40 94
83.426 -43.828 156.330 136 0 171
63.962 -113.464 62.270 0 60 143
21.230 80.217 -11.174 0 165 110
-118.389 -194.420 -121.409 163 0 0
114.965 48.519 22.472 104 55 0
93.712 24.002 -8.754 112 59 0
87.486 -89.792 63.323 0 67 160
-58.724 108.313 54.184 96 51 0
-89.025 76.755 -7.457 0 55 130
69.680 -46.944 43.902 0 142 178
-48.269 -125.170 192.083 0 32 76
45.209 -79.105 -85.857 52 132 0
-30.732 -21.334 94.283 0 136 170
83.540 -214.772 18.647 76 40 0
65.614 -3.717 -13.602 63 157 0
-125.615 121.105 -36.900 0 69 86
-223.632 76.875 72.450 0 120 80
-35.480 -41.114 13.022 80 0 101
148.012 45.645 66.331 30 76 0
-108.173 109.514 -112.234 76 0 0
-93.176 -75.285 59.336 142 0 177
559.570 -392.516 58.554 0 101 67
-59.305 -25.014 -16.057 168 89 0
-145.073 181.373 -97.126 63 158 0
-191.965 -167.009 14.233 56 141 0
16.554 -33.145 -16.568 73 0 91
-65.695 70.184 -230.465 0 76 50
-13.408 122.921 -58.067 76 0 0
10.870 6.133 -7.753 150 0 0
84.222 -32.846 -14.408 96 51 0
-21.644 -75.596 -111.891 0 114 76
48.591 -46.304 -37.383 0 76 50
12.046 35.949 -15.982 0 75 94
12.377 116.873 -50.414 107 57 0
19.015 -223.530 -1.424 31 78 0
2.497 120.740 68.452 70 175 0
-56.260 163.852 -147.556 30 76 0
-15.608 -17.339 133.990 66 165 0
199.559 -30.591 208.444 0 137 171
172.550 115.175 -19.432 116 0 145
51.148 53.205 -84.036 0 137 171
34.043 -118.096 66.407 30 76 0
36.836 24.768 -34.711 0 129 86
67.373 -44.792 -98.707 0 174 116
72.209 11.907 -81.609 35 89 0
25.211 -7.544 -21.902 67 168 0
-50.684 -20.455 31.907 78 0 98
-146.216 -22.000 55.228 92 0 115
153.721 43.760 64.291 108 57 0
42.027 -6.300 6.447 54 136 0
24.174 -41.099 -12.378 148 78 0
78.396 102.191 69.795 154 0 0
-153.415 -15.273 60.564 39 97 0
4.555 -14.093 -16.131 80 0 100
-95.139 -165.475 118.804 64 0 80
60.100 168.516 -32.552 30 76 0
24.697 -2.131 43.019 0 155 103
-42.890 -41.505 16.178 76 40 0
51.257 38.247 -44.444 89 47 0
-17.959 9.498 -153.602 84 44 0
86.487 30.833 -69.226 53 133 0
188.324 52.971 -93.228 63 158 0
71.209 -63.669 -32.718 0 72 170
26.921 -65.269 16.581 0 173 115
44.768 127.521 79.652 0 76 50
204.387 -44.259 -28.598 111 59 0
73.085 -132.914 -134.417 0 37 88
19.169 157.024 46.546 30 76 0
-68.272 118.616 -38.258 101 0 0
83.530 78.798 21.798 72 0 91
1694.519 106.320 908.227 255 135 0
-0.207 -24.130 140.173 0 122 152
-87.277 15.667 -51.101 94 0 0
-36.085 -103.022 203.393 76 0 0
-126.337 36.403 -56.799 0 32 76
-0.001 -41.565 46.262 0 71 89
159.097 40.709 250.044 0 78 98
162.718 -7.979 201.167 86 0 108
-158.222 46.922 182.305 0 143 95
16.189 -168.128 -26.806 0 54 129
-38.055 -151.441 152.113 63 157 0
26.619 48.149 40.585 156 0 0
-57.905 24.236 7.496 76 0 0
41.219 107.530 80.194 50 126 0
155.742 43.396 83.173 48 120 0
-82.987 104.515 -10.133 76 0 0
106.624 -101.844 -162.285 0 61 76
77.506 22.618 -152.769 0 69 165
82.246 -193.624 45.046 54 135 0
-78.308 -117.145 37.221 63 157 0
-49.183 0.244 193.258 168 0 0
48.872 123.400 -6.222 155 0 0
20.905 37.418 111.865 0 78 97
-42.865 56.827 -10.795 30 76 0
-125.242 102.685 40.960 0 82 103
96.283 -92.648 33.773 45 113 0
-10.548 15.285 -57.436 0 82 102
201.622 26.162 86.905 0 76 51
145.446 37.982 171.553 0 77 96
142.507 30.340 -124.852 104 55 0
-12.083 47.634 -5.042 0 98 122
110.916 -67.216 -14.234 55 139 0
75.101 15.122 44.834 0 168 111
-57.592 -15.861 97.443 0 71 169
-26.199 153.366 -221.861 76 40 0
28.470 -129.102 68.648 44 111 0
154.824 136.295 30.873 161 85 0
-11.130 -34.768 -106.842 48 122 0
-145.683 99.785 199.621 0 76 50
-213.837 -99.657 23.113 131 69 0
90.741 -10.322 -86.398 66 165 0
80.700 54.985 80.182 64 160 0
-70.063 102.190 170.801 61 0 76
208.540 74.309 -11.012 154 0 0
29.035 78.492 -27.397 50 126 0
38.083 283.730 184.040 166 0 0
24.687 104.182 -220.093 110 0 0
122.717 -117.167 -105.753 0 76 50
-222.891 136.216 -89.924 54 137 0
34.430 -37.226 235.122 0 145 96
309.076 -270.956 -102.301 0 76 50
-184.407 92.521 13.780 0 98 123
56.365 185.084 -83.737 0 47 111
260.329 -36.043 101.424 0 32 76
10.358 38.389 -38.406 0 61 76
138.529 -24.845 8.935 167 0 209
132.961 58.332 -72.042 0 70 88
-124.335 22.642 -110.691 0 76 50
-141.713 26.010 -15.168 86 0 0
-78.869 84.343 50.382 72 0 90
-6.079 -22.447 70.221 132 0 165
48.856 -79.233 62.667 0 61 76
-138.199 56.723 179.636 98 0 122
91.310 -20.138 24.370 76 0 0
40.339 -81.167 23.505 76 0 0
-143.940 13.769 42.068 94 0 118
34.764 17.037 31.232 76 0 0
-145.900 221.446 -3.214 149 79 0
42.678 -22.126 -22.229 0 125 83
18.797 41.943 35.366 94 50 0
91.135 -62.045 -48.548 0 70 165
-50.028 44.691 36.142 111 59 0
54.695 -7.172 -21.777 77 40 0
-90.794 -151.869 16.358 0 88 110
211.414 118.422 82.448 139 0 173
7.718 91.793 -58.080 0 77 96
98.661 -2.232 -13.094 0 170 113
166.794 -97.603 34.356 0 32 76
-182.158 72.758 -138.053 76 0 0
55.178 118.474 57.542 153 81 0
-9.936 -248.630 -165.455 0 238 158
30.259 9.493 48.300 0 155 103
-25.828 20.183 48.310 0 139 173
-86.044 126.125 -60.823 113 0 141
-145.025 65.446 79.220 0 80 53
40.048 227.664 -53.868 0 105 132
1.374 34.310 19.256 147 78 0
-186.676 -16.598 216.493 0 44 105
161.156 -7.835 105.980 0 36 86
306.367 -231.664 -841.889 0 51 122
-33.016 51.860 -9.147 0 103 129
84.423 154.779 44.274 161 0 0
-7.171 -151.430 29.806 135 72 0
1424.084 1180.461 -181.457 204 0 255
-42.846 90.004 -31.453 0 137 171
43.154 -65.566 2.053 76 0 0
-209.235 -159.018 105.560 30 76 0
224.110 -40.867 86.160 0 158 105
-127.790 -102.977 -20.431 0 38 90
-42.807 21.885 -38.882 0 163 204
452.356 -955.406 123.716 0 255 169
-55.371 -133.140 -18.340 0 32 76
42.214 43.022 37.777 60 151 0
-11.368 1.201 36.074 0 49 116
136.078 59.670 -51.142 0 165 110
104.774 117.494 31.837 146 0 0
36.394 112.836 844.613 101 255 0
180.736 126.372 123.833 76 40 0
80.792 156.078 -24.335 0 61 144
-13.850 37.591 56.414 0 32 76
78.014 3.107 45.776 76 40 0
204.253 -175.036 -61.847 147 78 0
90.487 -62.523 156.894 147 0 0
62.601 3.453 94.102 0 95 119
-164.379 -70.899 -63.756 76 0 0
-192.711 -145.883 -4.210 0 56 133
-20.971 36.232 -29.534 100 0 125
-105.412 150.296 -5.864 80 0 100
165.823 -125.185 -117.858 76 40 0
-2.824 86.974 -11.344 150 0 0
-54.585 -137.251 -11.396 0 113 142
12.941 75.641 -74.436 156 83 0
-12.488 13.760 70.609 0 102 128
-127.608 -103.663 52.991 85 45 0
-18.594 197.785 -157.082 149 0 0
60.131 -93.794 108.866 0 171 113
66.181 2.851 -25.374 163 87 0
66.711 -158.966 116.538 0 65 82
30.154 -70.769 123.732 122 0 153
-46.245 -198.328 -17.394 76 40 0
-158.824 76.529 -121.110 0 76 50
129.158 169.117 178.157 0 61 76
189.015 -75.311 -66.071 0 134 89
14.407 -19.611 -64.623 109 0 0
243.106 -31.860 -73.999 60 152 0
200.834 105.542 10.914 0 122 81
-201.917 -71.761 -105.628 0 95 63
136.197 84.418 -144.766 76 0 0
-83.624 -96.922 214.526 0 76 50
-18.024 -68.547 -200.555 30 76 0
-211.110 -85.659 20.039 136 0 170
115.142 -214.987 -66.415 118 0 147
-58.642 28.532 91.497 77 41 0
71.171 -30.753 189.684 0 61 76
-205.222 86.898 -139.800 0 71 168
-96.954 -164.887 -83.054 122 0 153
26.770 12.527 -30.259 81 0 101
-34.380 117.268 521.433 0 36 86
-142.134 -84.046 29.324 76 0 0
30.620 -33.563 85.124 42 106 0
-40.199 40.755 -228.530 55 138 0
-51.491 -208.180 100.670 76 40 0
39.746 16.963 -15.717 76 40 0
-14.624 179.590 126.936 0 33 78
84.710 -33.476 -13.745 38 95 0
88.557 149.849 112.272 41 102 0
-23.097 75.898 159.566 90 0 0
202.946 -94.121 -112.985 162 86 0
-108.713 -165.269 -155.303 45 114 0
53.850 -193.842 -142.953 61 0 76
-170.489 92.647 -192.878 0 68 162
-68.646 28.326 100.076 0 55 131
-70.267 -142.540 14.801 0 106 133
-58.395 -12.084 -50.567 0 39 94
26.961 40.824 76.024 78 0 97
-75.182 -158.910 -120.934 76 40 0
84.897 11.237 95.525 89 47 0
134.757 122.056 -113.169 0 63 79
-59.002 -192.406 36.020 0 74 92
46.325 72.991 29.726 0 94 117
-78.059 268.002 -0.469 155 0 0
-91.805 191.302 -115.077 61 0 76
-6.002 46.835 159.790 32 80 0
-0.278 114.308 -29.435 0 54 129
91.296 -1.092 206.215 76 40 0
-195.901 29.196 -106.551 176 0 0
201.629 -124.362 -38.722 0 61 76
-25.705 -141.288 209.789 0 32 76
29.222 -119.710 11.057 96 0 120
-118.420 142.512 191.137 166 88 0
-36.276 54.595 -48.735 0 107 134
109.005 -169.593 -105.214 65 163 0
64.550 -42.456 -23.408 0 153 102
148.981 -250.565 -207.226 30 76 0
23.131 -46.642 -64.100 0 62 148
221.515 -115.353 -31.602 141 0 176
-247.186 -77.947 12.980 163 0 204
11.901 -42.095 39.347 0 61 76
176.424 -1.432 112.899 152 80 0
-2.849 -115.203 83.159 113 60 0
-14.186 13.211 172.434 61 0 76
-97.782 -48.013 -267.114 174 92 0
-51.095 -126.709 29.568 76 40 0
222.740 -3.166 53.421 0 120 80
41.871 -6.775 49.091 0 32 76
72.328 -85.598 -14.104 77 0 97
152.980 -86.759 12.687 127 0 0
120.817 -50.795 -73.494 0 86 57
-11.489 62.934 157.677 139 0 0
98.943 71.578 -100.608 176 93 0
17.054 -53.317 -0.423 76 40 0
220.614 111.222 -72.540 0 62 78
4.412 -17.372 8.242 0 72 171
-65.401 -268.187 -139.059 76 40 0
127.815 12.063 3.012 140 0 175
110.108 -82.395 59.690 0 61 144
213.329 -178.222 -41.063 0 173 115
-66.581 -135.776 148.868 144 76 0
-38.609 2.330 -41.911 0 87 109
-89.538 10.451 47.659 196 104 0
14.088 6.893 83.311 0 95 63
-205.657 -8.758 38.204 65 164 0
60.790 129.473 202.308 0 45 108
12.362 21.324 -61.649 93 0 0
-225.901 69.318 -2.146 0 61 144
129.750 94.343 105.645 0 137 91
-71.525 -40.908 23.982 0 76 50
75.744 -75.393 15.322 30 76 0
-131.240 120.091 -22.439 143 0 0
43.976 35.875 -237.369 0 62 148
-142.398 102.735 43.558 0 65 155
37.531 -81.557 48.248 76 0 0
-29.406 -144.656 112.855 76 40 0
22.013 -55.512 -16.057 0 170 113
-48.482 169.609 -53.398 0 137 91
87.605 -3.128 42.301 76 40 0
52.351 93.550 18.134 0 90 113
169.762 -10.614 -12.882 82 43 0
-123.284 64.885 -165.132 0 59 139
183.107 -80.052 77.231 0 48 114
-186.301 -181.833 -142.280 30 76 0
-38.917 34.941 116.128 0 51 122
-93.270 -75.509 -244.180 127 67 0
-30.427 44.061 39.140 138 0 173
10.575 -48.498 36.500 134 71 0
-38.107 -114.418 -215.529 76 40 0
42.562 30.957 25.079 0 103 129
5.574 49.157 -67.709 0 104 130
166.241 -47.127 13.812 87 0 109
-129.196 -253.432 96.192 0 138 92
-77.739 34.882 -86.454 0 41 98
53.697 -271.714 -36.691 61 0 76
-5.858 61.398 17.458 0 115 144
72.178 -29.189 -1.783 131 0 0
144.621 18.496 6.445 0 124 83
-78.675 -79.857 -40.341 102 0 127
28.680 -14.462 100.486 0 60 143
29.617 -43.591 -12.684 0 148 98
105.010 87.485 8.820 0 61 76
39.295 60.216 -22.948 64 161 0
-205.840 -69.210 -123.241 0 32 76
23.315 -112.378 -40.191 0 82 194
172.217 92.106 9.936 147 0 0
-147.878 133.066 132.998 155 82 0
24.800 -198.280 -53.471 76 40 0
-1.223 -33.373 11.017 0 32 76
34.357 -123.265 -27.960 0 159 105
106.608 -1488.984 -1173.220 255 135 0
-20.151 84.854 -143.705 0 33 78
-106.275 142.167 -45.570 0 108 72
-59.839 174.734 164.945 61 0 76
-45.395 -47.015 71.947 0 164 109
72.764 20.432 -211.421 80 0 0
-60.402 184.152 -190.821 0 76 50
-49.329 -148.202 14.349 161 0 0
184.362 -48.848 -120.808 76 0 0
3.662 60.050 -41.333 76 40 0
-115.833 37.235 -19.746 0 36 85
2.234 -17.791 26.443 0 39 93
-259.950 -54.397 -19.679 122 0 0
-21.895 -27.417 -8.550 76 0 0
-189.851 44.311 99.835 0 91 60
75.564 97.156 23.245 166 0 208
-126.488 151.053 99.896 0 172 114
77.240 80.387 -45.979 138 73 0
55.730 -66.192 23.575 0 61 76
142.403 76.842 -154.891 61 0 76
-197.736 87.341 -56.239 44 111 0
39.567 64.115 -15.100 136 72 0
17.824 -31.253 106.029 0 32 77
-350.792 594.322 -161.042 0 107 255
38.573 118.505 25.307 0 61 76
77.065 172.004 17.809 87 46 0
72.479 123.689 -81.423 146 77 0
44.498 11.355 16.059 0 69 163
-34.442 156.834 -164.527 43 108 0
-105.965 -15.793 57.105 0 139 174
23.818 -15.718 -26.667 122 0 0
-874.739 -96.171 -143.072 204 0 255
-84.970 -189.639 -120.668 32 80 0
139.895 -10.279 46.191 168 89 0
32.512 -14.527 -0.867 0 175 116
129.617 -111.943 -111.484 51 128 0
6.880 11.126 7.573 76 40 0
1054.405 -386.787 -324.715 101 255 0
64.455 -123.612 101.457 76 0 0
18.481 3.565 9.243 0 125 83
-7.157 50.458 -13.050 68 170 0
23.132 94.160 67.847 42 107 0
-70.984 -128.688 94.460 170 90 0
-171.939 -13.313 -9.952 0 102 128
-96.162 154.235 166.480 0 40 95
-204.826 116.938 -72.812 61 0 76
-104.799 -81.151 -103.719 0 203 135
-169.376 193.177 -12.632 78 41 0
-176.823 118.450 31.869 0 127 159
-23.228 78.597 -112.418 76 40 0
-100.728 -125.334 -203.546 61 0 76
40.323 33.496 38.666 0 32 76
-166.000 208.118 -121.739 91 48 0
84.726 33.817 -180.814 116 0 0
103.225 -40.638 175.320 0 34 81
-41.985 -69.040 67.051 61 0 76
19.371 105.624 19.173 61 0 76
61.171 102.420 24.551 117 0 146
19.749 28.912 65.452 30 76 0
77.335 -78.456 -111.537 0 181 120
1285.337 -1328.615 281.050 83 44 0
-88.697 -81.592 -76.763 61 0 76
72.086 -134.939 262.902 0 160 106
171.101 83.463 -50.740 76 0 0
255.071 -118.175 44.354 111 0 0
-26.638 -95.290 -20.361 0 97 64
-199.142 -91.096 55.237 0 32 76
6.770 60.493 -197.402 0 36 86
-33.391 21.968 45.597 54 136 0
-61.335 51.075 90.196 93 49 0
-16.320 -88.474 107.905 118 0 0
-32.926 19.575 139.639 0 141 94
80.478 190.924 -223.532 0 35 84
50.168 -16.038 36.316 64 160 0
-107.799 231.272 -64.494 0 126 84
154.277 81.871 -39.804 0 158 105
-63.902 -30.568 16.412 76 0 0
176.624 44.758 -14.183 0 88 110
188.108 -122.436 -186.653 42 105 0
22.367 -20.128 -66.074 0 32 76
-50.567 -98.417 -6.086 107 56 0
-3.049 -9.199 -20.709 99 52 0
-94.975 -94.789 -37.441 149 79 0
196.197 12.873 -20.802 81 0 0
-149.077 -119.866 -90.599 0 61 76
160.249 -104.173 -38.410 0 114 143
-92.491 -18.500 156.692 60 151 0
-8.211 -0.632 5.038 138 73 0
-115.839 197.302 -101.849 167 89 0
-124.226 -160.593 -103.559 94 0 118
-109.668 135.825 60.109 0 32 76
38.885 -12.314 197.034 102 0 128
155.348 -95.680 -169.792 140 0 175
-86.775 -207.247 -89.166 0 87 108
164.803 -153.256 16.427 55 138 0
19.573 -36.070 124.006 142 75 0
-154.783 59.620 43.322 65 0 82
157.879 -131.706 36.156 145 77 0
-66.795 -116.767 90.848 0 93 62
9.286 1.089 -5.521 0 76 50
-85.351 34.975 119.723 61 0 76
-62.298 -221.197 -1.298 0 101 126
157.235 -125.703 107.547 68 172 0
-146.502 -102.927 171.409 43 107 0
-67.681 -84.663 -24.250 97 51 0
-123.091 28.331 16.777 139 0 174
181.602 24.621 -72.599 76 40 0
-39.690 -21.704 49.397 99 0 0
-112.301 -36.018 38.150 61 0 76
188.017 -383.127 367.060 0 177 118
-35.244 -52.273 109.792 58 145 0
100.012 107.962 101.413 0 35 84
77.236 36.014 53.691 138 0 172
-1.216 106.635 7.156 0 105 70
35.710 28.708 35.572 0 79 99
-53.647 35.525 -109.605 69 172 0
-196.799 -131.838 102.109 0 54 127
-211.484 -133.758 -61.806 124 0 156
131.358 38.397 -116.357 30 76 0
-28.937 -854.448 15.228 30 76 0
-25.620 -387.026 -93.839 0 171 113
-22.336 70.094 -9.671 30 76 0
113.139 -5.662 97.265 161 85 0
-9.298 63.745 49.781 0 176 117
253.134 -73.396 -21.803 0 76 50
-93.412 119.730 -113.420 38 96 0
-28.797 55.631 49.887 61 154 0
194.705 -149.720 -20.286 159 0 0
-182.679 -10.969 -113.478 0 37 89
-111.886 117.850 -57.047 172 0 0
-146.051 -64.460 32.858 117 62 0
-66.820 -43.978 44.074 0 108 135
69.598 -183.150 17.221 0 145 96
-15.571 133.837 -64.830 0 76 50
-122.037 -120.621 152.257 140 74 0
874.503 267.782 126.398 118 62 0
32.452 -14.158 29.371 96 51 0
66.701 101.334 96.527 0 88 110
151.435 -26.077 -96.647 41 103 0
-9.032 48.012 81.400 0 61 76
133.065 84.480 12.136 0 201 133
191.033 -44.637 -56.464 0 77 97
18.158 -55.181 -6.059 0 76 50
14.556 8.366 -57.469 0 161 202
43.651 57.949 38.392 0 125 83
33.801 81.790 -12.423 65 164 0
190.547 395.732 128.031 0 134 89
-187.856 99.233 -4.905 0 61 76
73.627 -210.662 -98.935 0 35 84
201.700 164.227 75.198 0 76 50
-95.634 -55.394 -63.363 0 99 65
-29.870 -45.505 66.438 61 0 76
-56.519 -46.894 111.697 49 123 0
88.333 2.224 -107.350 0 102 68
43.335 -189.319 45.601 0 141 176
-35.545 -116.317 91.020 76 0 0
-25.178 -61.467 -37.627 0 95 63
31.041 2.456 70.117 0 110 137
-161.056 -87.771 -35.061 30 76 0
-160.618 37.647 -165.907 0 113 75
26.065 213.972 135.978 139 0 0
101.456 62.335 106.604 44 111 0
144.865 -164.612 -37.228 0 176 117
-39.317 -43.363 -49.464 34 87 0
-124.938 104.387 -116.910 76 40 0
-9.378 182.811 54.158 131 69 0
48.287 93.245 77.381 161 0 0
-114.857 -79.268 11.138 128 0 160
43.379 -59.110 46.558 106 0 132
45.636 -6.463 -114.587 30 76 0
58.627 106.508 214.162 30 76 0
-68.147 -16.579 -37.782 46 115 0
73.591 98.512 -42.966 76 40 0
-2297.631 -412.696 -1279.130 0 141 177
-43.749 -1.309 -26.946 63 159 0
31.241 -56.645 221.303 113 60 0
-175.352 17.535 -120.217 121 0 0
-37.145 -222.782 -150.674 0 95 63
-87.898 46.028 -208.195 0 118 79
-181.648 -12.796 165.023 97 0 121
-52.709 2.162 -126.534 0 32 76
-96.922 64.932 -160.640 108 57 0
-42.208 -127.922 7.312 149 79 0
-141.553 179.440 86.061 110 0 0
159.834 -119.662 7.682 0 55 132
-194.306 51.560 -155.061 0 32 76
-81.679 27.883 7.232 0 41 98
111.990 -95.720 91.555 141 75 0
-20.952 -95.521 60.559 0 50 119
58.775 -69.474 -142.270 61 0 76
-158.358 140.940 97.284 0 61 146
17.485 111.195 -142.455 0 59 140
-24.798 0.777 89.579 76 0 0
124.792 -121.287 -31.699 0 60 142
-49.776 -67.464 105.382 61 0 76
126.890 200.118 20.442 106 0 0
28.410 107.038 53.772 70 0 88
-13.542 3.653 -21.228 0 108 135
12.997 174.373 64.336 129 68 0
114.149 -28.021 11.830 0 76 50
166.224 62.017 107.033 76 40 0
-51.369 -4.341 37.091 0 68 161
-163.754 -83.434 53.704 105 0 0
-246.369 140.124 87.046 121 0 151
20.557 -4.825 -27.985 30 76 0
75.552 22.000 -4.188 121 0 151
129.279 46.331 -172.363 0 61 76
-45.416 215.860 47.643 76 40 0
216.822 127.283 156.769 93 0 117
82.852 158.897 -67.812 0 69 163
89.059 -6.899 -17.528 104 55 0
78.613 69.220 71.476 0 129 162
-1770.535 1453.955 39.109 0 255 169
126.077 -156.295 -74.979 95 0 0
21.699 -64.994 -11.601 147 78 0
-151.593 -100.994 -240.641 255 0 0
-1.952 25.585 -256.477 166 0 0
-82.047 -141.242 -68.150 0 33 78
35.279 -37.985 9.760 0 120 151
96.069 28.612 -2.229 109 58 0
38.081 115.485 -140.132 112 59 0
-11.722 -23.166 -9.698 197 104 0
19.094 46.841 -59.358 0 110 137
111.201 -73.805 -152.220 140 0 175
12.225 -139.048 -241.935 0 170 113
188.990 -69.150 72.167 91 0 0
-220.618 32.051 91.680 0 76 50
171.720 96.030 154.994 0 102 68
-59.414 108.110 -27.049 201 107 0
-23.512 -102.079 50.376 116 0 0
52.441 68.179 -37.787 0 106 71
0.773 -80.402 9.188 0 32 76
-43.526 -30.360 -115.733 30 76 0
12.426 -15.772 -41.474 0 160 107
-1.853 -54.590 13.020 136 0 171
-115.349 3.403 225.335 128 0 160
75.338 14.465 14.098 0 61 145
-133.527 90.922 262.784 76 40 0
-64.113 124.613 197.281 92 0 116
-74.047 67.190 66.012 148 79 0
194.829 -99.059 43.946 127 67 0
82.923 60.864 37.370 76 40 0
43.114 178.986 -122.672 0 32 76
-45.612 162.511 -171.365 0 129 161
110.421 -45.511 101.951 171 91 0
21.264 -24.177 148.338 123 0 154
88.905 27.949 28.396 0 59 141
108.520 40.716 -11.228 76 40 0
53.326 -114.931 -147.123 105 0 0
-66.105 260.005 50.642 0 76 50
2.481 32.421 -33.235 77 0 96
38.064 93.530 197.289 0 70 167
20.891 78.123 179.633 0 91 114
-19.040 24.918 -79.508 45 112 0
116.603 -122.018 20.131 0 133 88
95.434 73.063 48.933 153 81 0
9.182 -93.290 44.830 106 56 0
-1324.256 -1082.970 -391.521 170 0 0
-91.837 86.646 25.886 117 0 146
17.105 27.672 -37.817 54 135 0
-18.850 69.897 19.282 121 0 0
-162.715 144.285 -22.778 123 65 0
-1.660 2.400 -52.724 0 158 105
65.963 58.147 -62.527 0 153 102
-119.715 -35.071 41.693 33 84 0
-25.082 -231.741 109.551 77 0 97
272.866 -76.328 19.269 61 0 76
-48.025 -106.303 77.183 76 0 0
-192.255 145.783 128.801 76 40 0
-78.106 -12.474 144.385 0 97 64
311.128 28.231 -51.730 0 76 50
-85.235 160.260 -70.705 0 123 82
49.595 104.394 25.428 0 50 120
118.075 -108.122 145.607 0 107 255
29.585 38.166 -52.273 44 111 0
14.382 -123.874 3.328 90 48 0
49.517 75.589 71.047 159 0 0
57.913 90.899 106.038 61 153 0
-64.166 -26.305 46.333 31 78 0
-94.767 34.622 -53.864 94 0 117
-67.985 -164.139 -82.907 0 76 50
-119.727 79.186 91.773 143 0 0
-11.966 137.664 -33.379 145 77 0
33.120 90.243 -132.171 69 174 0
-153.889 -85.278 144.965 76 40 0
-206.471 -110.008 6.251 0 61 76
13.652 122.036 79.282 0 65 154
139.219 -11.720 191.260 0 38 91
-175.888 89.966 -80.789 0 159 105
21.170 12.071 -72.547 161 85 0
165.560 -119.290 55.201 76 0 0
127.312 -125.523 -156.277 0 39 93
123.143 -73.536 32.938 0 56 132
-84.768 149.311 79.017 99 0 0
-80.608 37.466 -254.696 0 33 79
-97.226 -141.282 -63.802 0 89 111
-137.854 -16.051 -0.764 0 160 106
-73.749 -76.903 -117.090 43 108 0
59.794 61.019 8.056 128 0 0
-94.093 12.138 8.634 0 85 107
9.344 64.706 16.193 200 106 0
74.068 51.636 -69.025 157 0 0
18.442 105.429 59.074 0 80 190
-48.936 -50.082 197.570 0 76 50
29.582 -97.899 85.769 0 92 115
-9.582 -34.815 47.334 113 0 0
-73.540 -12.923 234.378 0 113 75
25.810 -5.960 22.544 99 0 124
-77.594 101.882 -132.620 61 0 76
87.612 14.690 -51.880 154 82 0
19.954 35.906 -47.658 0 38 91
193.514 51.740 127.201 100 0 125
54.612 -22.400 62.614 0 121 152
24.092 -49.927 -70.095 76 0 0
-6.128 -33.394 42.681 151 80 0
-31.296 -219.434 63.037 174 92 0
70.653 -218.982 -73.641 85 0 106
41.792 81.850 60.574 0 119 149
164.455 -11.271 41.240 121 0 151
-486.867 -516.648 469.182 255 135 0
26.758 -33.794 105.469 0 61 76
62.383 -87.405 20.243 81 203 0
-77.699 -50.452 82.840 164 0 0
73.516 -213.995 113.412 31 78 0
232.668 79.082 79.024 0 114 143
-6.208 -17.902 -60.270 0 61 76
-16.487 -0.130 89.065 0 87 109
22.661 -52.394 63.156 90 0 0
-2.628 109.261 -41.119 0 48 114
174.415 -7.760 122.986 97 51 0
2.633 92.125 49.428 0 177 117
10.502 -60.857 51.145 139 0 0
-241.630 -7.496 74.316 49 124 0
207.925 -605.856 -203.082 76 0 0
29.590 52.573 -6.413 0 32 76
-45.918 172.658 -12.672 0 50 120
121.525 -71.963 20.143 0 110 73
-0.965 166.838 -133.939 118 0 148
-132.252 88.921 137.563 0 76 50
8.360 144.464 -63.400 0 81 192
90.841 6.958 221.795 0 75 177
192.667 -119.829 81.116 0 92 115
-200.170 -110.246 92.985 30 76 0
-29.725 20.396 241.379 0 161 107
-202.715 -62.749 -20.374 0 61 76
-41.142 243.278 69.613 156 83 0
-142.460 49.793 -88.625 0 68 86
39.879 -46.205 17.580 0 50 120
270.352 -175.524 58.609 0 111 74
-83.883 57.153 -134.434 0 32 76
-89.934 217.614 -109.283 154 0 0
-50.494 29.019 -39.517 165 0 0
-107.678 7.753 -39.397 0 59 139
-104.811 -77.343 93.679 56 141 0
-146.022 -45.896 98.256 76 0 0
-12.766 72.238 3.968 81 0 101
-36.244 -25.547 1.078 77 41 0
89.002 758.433 -338.265 0 103 68
59.380 -15.864 137.436 61 0 76
-185.040 134.318 -40.853 0 67 159
33.114 31.774 76.870 82 0 0
-195.877 -86.277 72.357 0 79 99
-12.395 -148.238 -197.656 78 41 0
131.602 -42.252 38.073 32 81 0
-177.476 41.868 -56.474 41 103 0
-32.453 121.516 20.942 0 70 167
-18.923 -62.235 -4.336 79 0 98
26.157 5.333 73.331 66 166 0
36.201 144.678 -61.447 0 32 76
-137.853 47.875 30.451 0 121 151
9.623 127.663 -32.911 0 96 121
-23.829 -52.229 76.056 0 42 101
-129.909 -78.312 123.791 104 55 0
136.812 28.092 106.109 99 0 124
-107.826 49.668 -183.823 58 147 0
85.728 17.969 8.109 139 0 174
207.742 0.045 73.954 167 0 0
37.298 -160.394 85.221 0 112 75
107.900 100.558 210.209 0 32 76
88.025 -132.680 -46.679 0 128 160
46.538 78.224 49.970 0 97 121
29.728 -79.498 -76.229 0 32 76
71.093 -78.644 23.618 0 124 155
3.470 65.575 -54.487 0 107 71
94.141 -23.541 7.865 0 169 113
50.584 -59.779 75.828 83 0 103
79.314 -156.559 -63.351 0 32 76
2.821 78.860 88.497 0 144 96
287.940 -45.889 -116.873 113 0 0
-129.693 -57.005 13.253 122 65 0
-170.620 -141.018 -61.735 0 32 76
-129.541 43.210 182.980 0 72 91
3.663 101.115 8.445 90 0 113
-8.236 151.620 183.277 126 0 0
-24.122 -8.548 -44.065 114 60 0
50.781 3.628 2.772 0 61 76
-151.019 25.306 -222.029 76 0 0
197.734 92.995 37.415 0 33 79
-116.377 -47.703 -102.935 0 61 146
-87.584 45.305 -22.594 111 0 139
75.366 142.798 -164.007 118 63 0
197.033 116.037 -41.636 30 76 0
-151.331 132.842 -86.263 0 178 118
186.109 70.331 80.022 0 32 76
55.092 -97.757 -48.074 0 130 162
-177.202 -184.473 -146.459 79 0 99
111.710 -63.051 -121.022 0 78 97
-259.735 127.735 -369.513 61 0 76
30.575 156.894 -147.121 138 0 173
-9.685 35.106 -25.006 0 56 132
70.090 -7.352 -1.524 0 86 107
672.176 -792.237 897.253 0 32 77
152.955 -124.183 -39.314 197 0 0
-19.265 -57.852 79.433 0 76 50
219.718 156.819 19.677 0 76 50
-103.598 158.339 -40.145 30 76 0
173.067 23.056 234.791 0 42 100
111.563 184.116 -58.505 0 61 76
-269.603 137.760 -61.539 76 0 0
8.108 25.994 -5.208 0 91 114
-3.535 -125.641 241.668 0 65 155
-26.636 51.137 130.585 132 70 0
4.564 57.482 9.129 0 64 151
55.974 -2.864 141.443 76 40 0
-1.103 32.807 -12.825 44 110 0
-10.592 -23.903 -10.820 170 90 0
151.294 146.818 24.627 151 80 0
134.736 59.497 80.453 34 85 0
134.148 -119.385 -107.884 0 197 131
25.891 -73.448 -29.523 55 139 0
-129.463 193.236 87.592 0 37 89
-60.572 -138.810 -83.397 0 65 154
16.871 -5.005 -68.725 0 86 57
-126.730 -30.327 119.934 0 76 50
-33.678 147.509 0.530 130 0 163
124.169 -29.972 48.899 53 132 0
-28.957 34.756 -31.702 59 149 0
73.160 42.691 54.831 136 0 170
-97.076 -84.010 72.393 0 99 66
42.360 -88.583 61.533 91 0 113
-197.551 -46.484 45.750 76 40 0
101.197 -37.273 31.858 57 144 0
5.113 198.560 -258.661 66 165 0
55.631 26.490 -106.964 59 149 0
11.809 27.829 79.231 141 0 177
133.290 -34.525 43.389 0 138 172
139.596 -172.916 108.148 84 44 0
-15.855 12.857 -13.529 0 75 178
1.624 -7.180 49.657 76 0 0
79.154 126.311 151.032 108 0 0
211.964 -3.346 -12.597 76 40 0
-57.820 45.587 -153.139 0 118 147
-547.990 -69.294 292.461 0 32 76
12.675 21.932 12.995 0 101 67
-149.505 -18.384 -103.493 0 32 76
-68.660 -0.358 42.987 0 173 115
54.553 51.655 43.257 112 0 0
117.307 93.967 155.397 0 76 50
-152.699 174.225 179.758 145 77 0
-60.244 53.721 -46.376 0 32 76
113.466 -111.931 16.320 30 76 0
26.383 72.946 83.078 142 0 0
22.842 -1.193 -52.328 0 112 75
26.892 -159.913 44.804 0 76 50
122.352 0.169 108.048 105 0 0
50.563 31.724 4.378 57 142 0
-52.560 -4.805 -15.552 119 63 0
53.805 192.867 54.466 61 0 76
-11.688 -15.508 -20.672 76 0 0
22.948 -107.009 -74.871 0 108 72
-61.700 103.132 57.222 0 61 76
47.020 -133.071 -78.510 0 61 76
-6.341 -16.966 187.679 63 0 79
-11.194 -58.740 -25.999 0 40 96
142.163 19.372 -162.003 53 134 0
-172.377 46.963 -137.947 91 0 0
12.820 3.739 -64.987 0 168 112
77.780 -49.452 -145.860 76 40 0
37.993 22.872 17.644 0 76 50
106.571 40.482 55.163 0 128 85
-24.336 182.291 182.223 115 0 0
381.297 -477.382 -66.900 120 0 150
-26.674 -29.271 6.159 130 69 0
90.469 -81.457 -14.826 0 136 91
15.210 30.331 -57.296 63 0 79
67.451 -64.151 -105.062 100 0 0
35.463 43.753 -80.293 107 0 134
41.876 -211.665 -46.874 30 76 0
-186.012 70.931 -146.317 68 0 85
-82.425 -18.267 -31.429 0 140 93
-195.183 129.983 11.633 76 40 0
177.536 7.566 -7.155 142 0 177
130.119 172.750 31.661 0 61 76
-247.260 104.189 -102.184 174 92 0
77.309 -97.206 -210.165 147 78 0
-31.698 -226.398 -76.365 0 87 58
-104.656 -120.627 -134.951 0 48 115
30.098 30.405 1.733 30 76 0
140.411 115.781 123.268 0 32 76
-136.333 -70.417 61.042 0 134 167
-16.258 32.713 8.430 76 0 0
24.473 129.360 15.965 60 150 0
-75.440 -12.271 -106.797 0 94 117
86.654 -45.581 83.150 0 153 102
74.145 -71.535 -62.551 86 46 0
60.446 -58.308 -61.497 68 0 86
-0.195 73.605 -43.216 156 0 0
155.764 -68.853 -97.226 99 0 0
21.927 -150.216 -218.073 0 80 53
106.909 56.567 183.808 139 0 0
47.699 -11.286 -74.083 148 0 0
6.430 38.689 -42.153 0 76 50
-13.804 -10.428 -37.422 0 127 84
50.049 83.490 279.383 135 0 169
157.026 126.863 -21.818 0 32 76
5.811 -59.567 10.718 0 102 68
65.252 42.807 68.000 0 177 118
115.774 -25.745 36.913 145 77 0
-59.013 -197.038 -41.812 0 88 110
74.359 -81.531 -128.448 0 138 91
-36.567 74.930 -27.310 0 61 76
128.353 -10.828 -244.147 76 0 0
-24.550 106.311 -78.355 0 32 76
43.561 -106.077 207.601 30 76 0
-1.588 -13.854 3.363 0 47 111
83.868 18.055 18.167 0 118 148
22.806 -0.413 11.513 0 76 50
35.395 -28.684 -19.613 0 175 116
129.848 17.887 -152.416 117 62 0
88.189 51.843 -116.474 0 102 67
-25.066 -102.382 75.103 0 61 76
50.140 25.982 47.318 0 55 132
-142.482 -116.956 153.851 169 0 0
115.831 115.933 -71.437 30 76 0
54.291 -2.647 67.447 94 0 118
-139.612 -90.585 116.109 0 32 76
-99.857 -9.805 102.762 148 0 0
-119.630 7.076 14.490 32 82 0
84.071 51.576 -258.932 0 56 133
-41.835 200.837 -57.667 30 76 0
-170.963 -95.132 -33.522 0 75 94
-66.883 -78.846 -40.006 99 0 0
44.773 51.787 -2.142 0 75 178
179.321 138.303 -64.187 76 40 0
-149.375 113.730 -16.866 61 0 76
-12.395 47.424 -42.829 76 0 0
-108.267 249.193 28.607 78 0 0
-7.611 124.208 -154.324 0 162 108
-169.690 177.307 77.610 50 126 0
23.106 -109.805 93.936 95 0 0
13.913 -47.442 34.030 76 0 0
29.477 -9.998 110.009 0 155 103
98.630 96.431 -14.611 0 104 131
21.608 68.915 219.893 164 0 0
-64.630 -81.805 -127.770 68 171 0
7.409 9.914 8.111 0 70 167
-83.883 -154.613 -77.528 0 32 76
-5.639 -58.793 25.671 0 76 50
123.175 176.541 -1.883 109 0 137
220.605 3.425 -97.868 173 91 0
105.150 171.379 -114.828 0 76 50
56.203 53.709 28.360 53 134 0
90.363 -0.464 28.807 134 0 168
-13.819 7.386 119.671 0 61 76
179.237 182.121 68.290 0 32 76
15.629 123.868 -6.733 0 76 50
154.948 -122.685 222.063 76 0 0
23.296 36.836 -116.620 0 63 150
1.695 -93.175 -4.363 0 76 50
-125.116 173.378 -137.828 76 0 0
63.814 106.252 35.695 112 0 0
-209.505 -87.207 108.596 119 63 0
58.437 41.026 7.257 101 255 0
-175.333 -60.247 -0.070 0 129 85
7.926 45.075 -39.406 0 167 208
-133.457 -25.147 134.868 159 84 0
59.335 120.232 59.118 81 43 0
-64.540 -7.943 15.445 164 87 0
-160.360 223.817 -33.823 0 111 139
97.161 -206.862 -91.470 0 79 52
130.924 -35.437 28.554 0 87 109
159.103 -141.221 -133.506 0 78 52
-20.966 -76.124 57.534 41 103 0
60.485 -0.375 -35.962 0 156 104
-104.354 59.446 -33.365 0 127 84
-124.827 -67.686 -153.881 0 32 76
-89.237 -143.737 57.164 166 0 0
70.917 -93.713 -112.693 0 61 76
110.726 -143.783 21.772 99 0 0
36.559 -23.604 -1.224 0 58 137
21.715 -133.910 -9.170 0 132 166
-66.506 51.380 14.188 35 88 0
-94.820 -43.966 -193.058 0 61 76
98.929 -140.222 102.416 107 0 0
85.517 56.202 -14.462 134 71 0
93.415 28.073 183.563 0 121 151
-16.702 -61.529 5.753 138 73 0
-127.103 102.137 101.476 30 76 0
103.957 -33.534 -25.657 76 0 0
22.020 -52.585 -26.536 84 0 105
110.198 -58.111 -162.013 0 32 76
162.167 -130.845 30.974 59 149 0
-80.618 12.408 72.129 177 0 0
-30.456 154.320 -47.828 79 0 99
90.967 -129.716 171.034 54 135 0
-132.462 -27.233 26.875 0 160 200
-51.861 210.411 60.929 76 0 0
-161.619 -46.531 134.239 0 233 155
-10.274 -105.201 26.562 98 0 123
-259.677 -99.061 -122.388 134 71 0
132.926 95.245 101.774 0 90 112
123.832 95.459 -114.630 0 76 50
-155.503 -84.850 -39.726 76 0 0
901.774 -30.304 -1701.877 0 76 50
-62.500 3.922 57.987 47 119 0
173.695 -127.946 103.462 159 0 0
24.032 107.885 -134.646 58 146 0
137.461 101.915 -89.795 0 203 255
47.391 -109.456 -2.230 0 169 211
151.746 -21.968 -116.845 76 0 0
62.606 -21.914 118.907 104 55 0
47.380 66.643 -21.798 0 61 76
114.447 -146.973 121.704 115 0 0
-107.739 41.600 -194.010 0 85 56
-37.536 -11.513 10.882 0 73 173
-92.335 27.506 -0.667 0 154 102
-65.604 44.379 28.111 78 0 98
9.688 -47.744 -202.241 125 0 0
209.022 133.319 -45.240 0 88 110
171.150 -53.280 100.921 178 94 0
-124.483 -11.005 -114.130 80 0 100
239.551 -48.406 -85.282 110 0 138
50.277 -57.884 48.481 124 0 155
-291.654 6.269 -217.777 0 44 105
-554.205 38.580 -606.884 0 203 255
-59.579 -34.337 6.555 0 157 104
-66.147 70.748 34.458 76 0 0
-19.756 128.455 -44.137 112 0 140
152.039 -229.952 36.905 0 44 105
-68.956 19.142 63.020 0 97 65
28.915 -24.980 34.549 96 51 0
-0.795 175.767 -32.200 61 0 76
45.633 -4.608 1.200 96 0 0
215.324 -20.597 125.528 61 0 76
-211.695 41.385 91.944 38 96 0
72.495 100.806 -32.161 0 38 90
56.702 120.664 -27.867 76 40 0
-142.725 224.364 -116.262 0 170 113
0.341 74.283 78.516 0 97 64
139.403 13.256 48.736 96 50 0
-129.732 -46.333 -20.697 73 0 92
45.130 152.108 60.034 138 0 173
99.739 -132.092 -89.181 0 61 76
-63.827 -183.897 123.394 30 76 0
-36.809 89.171 54.254 62 156 0
-130.097 -445.874 425.757 85 45 0
-19.192 49.845 88.822 0 97 122
49.555 93.170 164.351 89 0 0
189.763 -30.740 -46.473 169 89 0
-116.124 11.836 190.206 0 68 85
2.898 24.583 89.935 0 42 100
78.514 -9.904 18.161 0 116 77
205.775 -101.424 -41.079 92 0 0
-196.085 -108.983 3.864 0 61 76
-136.611 159.057 -82.890 0 32 76
-24.513 -267.494 -94.438 76 0 0
-72.922 16.886 -134.795 127 0 158
-69.788 -44.918 -149.188 0 94 63
232.158 206.296 -86.046 0 39 94
-8.160 17.226 -159.525 0 93 62
-89.819 -61.838 11.504 141 0 176
-3.444 -41.846 -13.700 0 44 104
92.754 74.255 155.281 69 0 86
32.536 -75.781 -16.517 0 131 164
98.636 2.109 176.582 76 40 0
159.201 46.640 -122.269 30 76 0
-23.119 -86.761 50.073 126 0 158
21.062 -39.622 -122.660 0 79 99
162.929 232.502 115.781 76 0 0
-23.909 -98.259 -28.482 76 0 0
-25.126 -30.116 -103.932 0 61 76
-70.885 -7.161 151.795 0 76 50
66.793 34.085 96.069 57 143 0
262.856 -118.009 -38.654 0 164 109
-85.239 204.189 143.697 156 83 0
114.402 -112.733 -121.126 0 76 50
59.237 -13.773 -58.867 99 0 124
-2.272 111.613 88.569 95 50 0
-92.266 96.265 126.636 146 0 0
23.062 -164.437 -124.218 0 57 135
165.567 162.211 -96.645 0 36 87
78.548 26.713 200.272 0 76 50
-132.526 127.149 80.517 0 76 50
100.014 103.737 -139.942 183 97 0
104.460 -47.633 174.067 43 108 0
48.031 -116.543 -60.519 76 40 0
-11.050 -90.561 56.801 76 0 0
-241.106 -313.354 157.927 0 83 103
-47.914 15.092 31.400 60 150 0
39.381 -49.584 -0.627 0 53 125
-21.119 29.899 -29.069 0 75 94
109.617 -128.876 -107.577 48 122 0
-52.248 39.702 31.500 0 37 87
64.449 24.567 -93.438 31 79 0
-129.725 -41.901 127.773 0 32 76
-5.378 -44.329 -75.110 0 172 114
-92.687 156.027 44.706 174 92 0
243.368 -35.171 102.509 58 147 0
68.602 74.033 -61.923 130 0 0
20.051 19.653 88.470 0 124 82
-4.862 -181.656 -31.040 0 41 98
-1149.081 1389.912 -413.823 152 81 0
44.579 -198.106 2.135 30 76 0
45.279 97.661 -177.559 0 120 150
13.724 105.201 111.144 176 0 0
41.873 23.494 11.855 0 95 119
176.394 3.728 139.252 0 145 96
-71.547 -94.854 -31.377 133 0 167
77.657 -72.778 81.534 115 0 144
70.953 40.681 -58.310 76 40 0
9.348 -61.351 -45.830 91 0 114
194.780 -39.225 -185.313 162 86 0
-163.411 -90.857 -56.846 0 32 76
196.586 71.535 46.361 0 61 76
107.396 76.575 287.999 0 120 150
188.178 -93.731 115.971 115 0 0
-17.221 -91.483 62.028 65 164 0
126.755 -48.883 -46.208 0 64 81
141.570 -223.575 60.360 0 133 88
-45.619 1.267 118.286 0 40 96
-232.497 40.953 94.892 131 0 0
58.532 -28.527 -19.749 0 61 76
-5.250 -9.588 -58.301 162 86 0
142.601 -144.476 61.013 0 69 164
-34.469 -23.805 -98.692 0 72 172
33.004 -22.088 52.167 0 61 76
47.282 -55.726 -139.748 88 0 0
-26.764 -144.557 -208.871 76 40 0
-8.192 -28.918 1.056 82 43 0
63.640 -25.541 59.536 0 118 78
281.553 203.554 -453.060 0 82 103
-125.268 -13.070 2.425 128 68 0
-93.692 -68.476 4.924 93 49 0
-74.385 -50.947 9.933 0 89 59
-37.502 59.874 -4.581 101 0 127
-115.591 167.833 -28.601 248 0 0
206.411 -75.010 -52.929 48 120 0
-7.074 154.340 -37.754 137 0 172
85.559 -1.663 -57.140 61 0 77
142.743 -102.355 -37.760 76 40 0
-46.792 -101.061 -47.496 0 71 169
247.101 -181.277 4.458 0 61 76
77.849 -105.333 199.952 76 0 0
-151.849 207.498 -5.614 0 76 50
152.365 -20.397 -30.246 89 0 0
-62.278 118.185 24.357 0 79 187
74.248 173.829 168.890 76 0 95
3.452 -79.437 97.296 113 0 0
-52.630 -43.670 1.667 0 44 105
75.356 -111.698 146.349 0 47 111
26.733 133.289 -201.403 76 0 0
58.275 15.221 140.284 0 65 155
82.610 149.901 -23.056 155 0 0
-99.331 -4.769 -39.014 137 0 0
-9.531 -54.143 -68.679 98 0 123
30.542 72.909 -40.228 0 107 134
61.069 -75.886 -53.988 38 95 0
19.251 -142.263 103.302 149 0 0
-16.995 49.520 -289.055 171 0 0
-152.051 -28.400 -157.664 117 0 146
-182.297 152.158 70.224 67 169 0
46.055 -44.659 -17.423 0 127 85
-14.929 59.178 -104.050 0 83 55
10.048 -61.013 -34.633 0 160 106
50.955 29.271 81.348 0 47 113
81.927 3.982 -93.299 0 58 137
127.515 134.696 56.045 0 32 76
103.324 -118.363 149.094 30 76 0
-155.417 -378.691 -216.814 0 255 169
-43.954 88.752 -16.986 0 32 76
48.704 -1.750 47.421 48 120 0
230.619 240.142 159.734 93 49 0
-13.936 -168.486 79.576 31 77 0
-60.384 -134.361 -122.362 0 34 82
-0.593 60.244 -189.784 0 65 156
228.266 -49.179 61.576 0 105 131
-90.990 -70.229 -27.621 48 121 0
101.304 -2.259 -68.915 0 127 84
-33.708 64.558 -22.630 0 32 76
-60.218 31.856 85.276 81 0 101
-48.949 -46.881 22.117 153 0 0
18.828 -45.351 90.879 57 144 0
197.096 69.197 100.931 61 0 76
-136.137 -148.620 -126.346 86 0 0
9.499 3.298 148.489 166 0 0
46.645 91.854 123.684 0 54 128
52.420 -34.525 126.274 0 72 172
62.383 -12.084 -14.599 0 200 133
97.528 -72.573 157.401 76 40 0
-96.471 -145.306 -32.840 61 0 76
8.336 -83.311 39.505 0 40 97
49.453 117.751 23.756 62 156 0
-78.946 -46.262 -21.501 76 0 0
-1.521 29.902 98.781 136 0 0
141.908 66.055 166.750 30 76 0
36.624 181.352 61.604 69 172 0
-88.220 -107.042 58.916 34 86 0
147.138 -4.735 37.024 0 76 50
-102.267 -53.438 -64.230 0 49 116
95.141 -63.802 -134.789 84 0 105
-13.790 10.574 -73.863 61 0 76
23.349 102.684 -60.064 0 57 135
-107.031 -27.263 199.044 158 0 0
-218.092 72.914 126.336 91 48 0
-164.395 51.570 -129.335 49 123 0
152.966 -73.087 40.981 0 141 94
-47.709 -26.054 -41.315 124 66 0
-136.763 105.565 -130.200 145 0 0
90.147 -82.371 76.254 0 32 76
135.896 90.448 173.602 88 46 0
-156.035 -107.395 -60.266 0 95 119
-81.535 22.971 -18.229 30 76 0
-143.668 180.586 -80.804 0 165 109
183.578 -84.262 122.442 167 0 0
26.658 50.130 -38.989 43 109 0
-214.541 -120.055 -47.106 0 41 97
-26.976 118.267 -162.675 0 170 113
214.415 69.411 -43.312 76 40 0
-150.122 -0.552 90.520 35 87 0
49.272 -186.642 3.243 63 158 0
1.182 -67.151 24.892 0 74 175
19.046 -101.493 110.849 0 122 81
32.848 -79.333 31.653 101 0 0
104.028 220.913 -101.608 31 79 0
159.595 -37.843 118.517 118 0 147
47.771 88.245 143.808 110 0 138
176.695 -122.425 2.351 134 0 0
5.740 28.630 -32.285 0 131 164
274.346 -170.243 -49.272 61 0 76
68.239 55.969 43.879 0 64 152
72.749 1.042 28.311 133 70 0
97.720 4.624 23.682 0 42 100
-82.213 26.661 -56.189 66 165 0
-132.368 66.440 -0.410 0 34 82
-75.566 -2.505 -172.695 94 0 117
-96.742 32.266 81.262 97 0 121
-159.172 -69.415 -25.735 0 99 66
109.044 153.325 93.175 109 0 0
7.017 43.048 -20.785 93 0 0
149.851 246.950 59.849 139 0 0
45.192 58.106 -96.665 61 0 76
72.859 -124.787 50.364 0 76 50
53.296 -20.199 -87.734 146 77 0
-149.769 -179.486 -149.271 97 0 122
-113.042 76.306 101.934 0 76 50
